x, y, z
1335021.04, 5018673.12, 756.96
1335020.9000000001, 5018672.0, 756.8000000000001
1335020.54, 5018672.44, 756.79
1335020.03, 5018671.95, 756.63
1335020.4000000001, 5018671.5, 756.65
1335020.76, 5018671.05, 756.64
1335021.07, 5018669.41, 756.49
1335020.71, 5018669.86, 756.48
1335020.34, 5018670.3100000005, 756.48
1335019.98, 5018670.75, 756.47
1335019.62, 5018671.19, 756.41
1335019.07, 5018670.9, 756.22
1335019.81, 5018669.99, 756.28
1335020.18, 5018669.54, 756.35
1335020.54, 5018669.09, 756.39
1335020.91, 5018668.64, 756.34
1335020.91, 5018667.38, 756.2
1335020.55, 5018667.83, 756.19
1335020.18, 5018668.28, 756.12
1335019.81, 5018668.73, 756.07
1335019.45, 5018669.17, 756.04
1335019.09, 5018669.62, 756.0
1335018.71, 5018670.08, 755.96
1335018.1400000001, 5018669.8100000005, 755.76
1335018.5, 5018669.37, 755.8000000000001
1335018.86, 5018668.92, 755.82
1335019.23, 5018668.47, 755.86
1335019.6, 5018668.0200000005, 755.94
1335019.96, 5018667.57, 755.97
1335020.33, 5018667.11, 756.03
1335020.71, 5018666.65, 756.04
1335021.08, 5018666.2, 756.0600000000001
1335020.72, 5018665.25, 755.9
1335020.35, 5018665.7, 755.85
1335019.98, 5018666.16, 755.82
1335018.8900000001, 5018667.5, 755.64
1335018.52, 5018667.95, 755.58
1335018.1500000001, 5018668.4, 755.48
1335017.78, 5018668.86, 755.4300000000001
1335017.41, 5018669.32, 755.4
1335017.1300000001, 5018668.73, 755.15
1335017.5, 5018668.26, 755.21
1335017.87, 5018667.8100000005, 755.27
1335018.24, 5018667.36, 755.34
1335018.6, 5018666.9, 755.45
1335018.97, 5018666.46, 755.57
1335019.7, 5018665.55, 755.63
1335020.07, 5018665.100000001, 755.67
1335020.56, 5018663.25, 755.48
1335019.47, 5018664.600000001, 755.4300000000001
1335018.72, 5018665.51, 755.3000000000001
1335017.99, 5018666.42, 755.16
1335017.62, 5018666.87, 755.0600000000001
1335017.25, 5018667.32, 754.99
1335016.8900000001, 5018667.76, 754.94
1335016.53, 5018668.2, 754.91
1335016.12, 5018667.75, 754.72
1335016.48, 5018667.3100000005, 754.74
1335016.84, 5018666.86, 754.8100000000001
1335017.21, 5018666.4, 754.87
1335017.58, 5018665.95, 755.01
1335017.95, 5018665.49, 755.07
1335018.31, 5018665.04, 755.1800000000001
1335018.69, 5018664.58, 755.23
1335019.05, 5018664.13, 755.3000000000001
1335019.42, 5018663.68, 755.32
1335019.78, 5018663.23, 755.35
1335020.1500000001, 5018662.78, 755.35
1335020.52, 5018662.33, 755.36
1335020.8800000001, 5018661.88, 755.36
1335021.05, 5018660.36, 755.39
1335020.68, 5018660.8100000005, 755.33
1335020.31, 5018661.2700000005, 755.25
1335019.95, 5018661.72, 755.15
1335019.58, 5018662.17, 755.13
1335018.85, 5018663.07, 755.0500000000001
1335018.48, 5018663.5200000005, 754.99
1335017.74, 5018664.42, 754.89
1335017.3800000001, 5018664.87, 754.84
1335017.01, 5018665.33, 754.69
1335016.6400000001, 5018665.78, 754.61
1335016.27, 5018666.23, 754.59
1335015.91, 5018666.68, 754.54
1335015.55, 5018667.12, 754.52
1335015.17, 5018666.48, 754.33
1335015.54, 5018666.03, 754.36
1335015.91, 5018665.58, 754.42
1335016.27, 5018665.13, 754.37
1335017.01, 5018664.22, 754.5500000000001
1335017.37, 5018663.7700000005, 754.66
1335017.74, 5018663.32, 754.7
1335018.85, 5018661.95, 754.86
1335019.21, 5018661.5, 754.97
1335019.58, 5018661.04, 755.07
1335019.95, 5018660.600000001, 755.12
1335020.32, 5018660.13, 755.19
1335020.69, 5018659.68, 755.3000000000001
1335021.06, 5018659.23, 755.4
1335021.01, 5018658.0600000005, 755.39
1335020.6500000001, 5018658.51, 755.28
1335020.27, 5018658.97, 755.2
1335019.9000000001, 5018659.42, 755.11
1335019.54, 5018659.88, 754.98
1335019.17, 5018660.33, 754.82
1335018.43, 5018661.23, 754.75
1335018.07, 5018661.68, 754.65
1335017.7, 5018662.13, 754.62
1335017.33, 5018662.59, 754.54
1335016.96, 5018663.04, 754.45
1335016.6, 5018663.49, 754.39
1335016.23, 5018663.94, 754.28
1335015.49, 5018664.850000001, 754.14
1335015.1300000001, 5018665.29, 754.2
1335014.77, 5018665.73, 754.16
1335014.2, 5018665.45, 754.01
1335014.57, 5018665.0, 754.08
1335014.93, 5018664.55, 754.07
1335015.3, 5018664.100000001, 754.0600000000001
1335015.67, 5018663.65, 754.13
1335016.04, 5018663.19, 754.25
1335016.79, 5018662.2700000005, 754.42
1335017.1500000001, 5018661.8100000005, 754.47
1335017.51, 5018661.37, 754.53
1335018.62, 5018660.01, 754.6800000000001
1335019.36, 5018659.100000001, 754.98
1335019.72, 5018658.65, 755.04
1335020.07, 5018658.22, 755.1
1335020.45, 5018657.76, 755.16
1335020.82, 5018657.3, 755.26
1335020.46, 5018656.53, 755.07
1335020.1, 5018656.97, 754.99
1335019.72, 5018657.44, 754.9300000000001
1335019.35, 5018657.89, 754.88
1335018.99, 5018658.34, 754.83
1335018.26, 5018659.23, 754.64
1335017.1500000001, 5018660.59, 754.4
1335016.8, 5018661.03, 754.38
1335016.42, 5018661.49, 754.32
1335015.31, 5018662.86, 754.0
1335014.95, 5018663.3, 753.95
1335014.59, 5018663.74, 753.84
1335014.22, 5018664.19, 753.82
1335013.85, 5018664.65, 753.78
1335013.26, 5018664.41, 753.53
1335013.6300000001, 5018663.95, 753.57
1335013.99, 5018663.5, 753.63
1335014.36, 5018663.05, 753.69
1335014.73, 5018662.59, 753.82
1335015.1, 5018662.14, 753.89
1335015.46, 5018661.69, 754.01
1335015.83, 5018661.24, 754.0600000000001
1335016.2, 5018660.78, 754.17
1335016.56, 5018660.33, 754.21
1335016.93, 5018659.88, 754.17
1335017.67, 5018658.97, 754.41
1335018.03, 5018658.5200000005, 754.52
1335018.4000000001, 5018658.07, 754.6
1335018.77, 5018657.61, 754.66
1335018.42, 5018656.67, 754.33
1335018.05, 5018657.13, 754.39
1335017.68, 5018657.58, 754.37
1335017.31, 5018658.03, 754.27
1335016.94, 5018658.48, 754.15
1335016.58, 5018658.93, 754.04
1335016.23, 5018659.37, 753.97
1335015.85, 5018659.83, 753.91
1335015.48, 5018660.29, 753.88
1335015.11, 5018660.74, 753.77
1335014.3800000001, 5018661.63, 753.66
1335014.0, 5018662.100000001, 753.58
1335013.6300000001, 5018662.55, 753.45
1335013.27, 5018663.0, 753.38
1335012.91, 5018663.45, 753.32
1335012.23, 5018663.32, 753.16
1335012.6, 5018662.86, 753.19
1335012.97, 5018662.41, 753.1800000000001
1335013.33, 5018661.96, 753.21
1335013.7, 5018661.51, 753.29
1335014.07, 5018661.05, 753.45
1335014.44, 5018660.600000001, 753.57
1335014.8, 5018660.15, 753.6800000000001
1335015.17, 5018659.69, 753.76
1335015.91, 5018658.79, 753.87
1335016.27, 5018658.34, 753.9
1335016.6400000001, 5018657.88, 754.03
1335017.01, 5018657.43, 754.09
1335017.37, 5018656.98, 754.08
1335017.74, 5018656.53, 754.04
1335016.79, 5018656.49, 753.72
1335016.42, 5018656.94, 753.75
1335016.06, 5018657.39, 753.71
1335015.69, 5018657.84, 753.66
1335015.32, 5018658.29, 753.6
1335014.95, 5018658.74, 753.5600000000001
1335014.22, 5018659.64, 753.48
1335013.48, 5018660.55, 753.1800000000001
1335012.75, 5018661.46, 753.07
1335012.3800000001, 5018661.91, 753.07
1335012.01, 5018662.36, 753.04
1335011.62, 5018661.89, 752.87
1335011.99, 5018661.44, 752.87
1335012.36, 5018660.99, 752.9300000000001
1335012.72, 5018660.54, 752.99
1335013.1, 5018660.08, 752.98
1335013.47, 5018659.62, 753.0500000000001
1335014.56, 5018658.2700000005, 753.3000000000001
1335014.93, 5018657.8100000005, 753.35
1335015.3, 5018657.36, 753.42
1335016.04, 5018656.45, 753.4
1335015.12, 5018656.36, 753.08
1335014.76, 5018656.8, 753.12
1335014.4000000001, 5018657.25, 753.0600000000001
1335013.28, 5018658.62, 752.88
1335012.92, 5018659.07, 752.76
1335012.55, 5018659.5200000005, 752.73
1335011.81, 5018660.43, 752.63
1335011.45, 5018660.87, 752.65
1335011.09, 5018661.32, 752.57
1335010.52, 5018660.91, 752.27
1335010.9000000001, 5018660.44, 752.32
1335011.27, 5018659.99, 752.42
1335011.6300000001, 5018659.53, 752.51
1335012.0, 5018659.08, 752.59
1335012.37, 5018658.63, 752.61
1335012.73, 5018658.18, 752.64
1335013.1, 5018657.73, 752.66
1335013.47, 5018657.28, 752.66
1335013.84, 5018656.82, 752.67
1335014.21, 5018656.36, 752.63
1335013.1, 5018656.5600000005, 752.29
1335012.73, 5018657.01, 752.3000000000001
1335012.36, 5018657.46, 752.3000000000001
1335012.0, 5018657.91, 752.28
1335010.16, 5018660.17, 752.09
1335009.54, 5018659.95, 751.88
1335009.91, 5018659.49, 752.0600000000001
1335011.0, 5018658.14, 752.03
1335011.3800000001, 5018657.69, 751.96
1335011.75, 5018657.22, 752.0
1335012.12, 5018656.7700000005, 752.04
1335011.42, 5018656.49, 751.72
1335011.05, 5018656.94, 751.7
1335010.68, 5018657.39, 751.69
1335010.32, 5018657.84, 751.67
1335009.95, 5018658.29, 751.6800000000001
1335009.59, 5018658.73, 751.88
1335009.22, 5018659.19, 751.82
1335008.6, 5018658.99, 751.67
1335008.96, 5018658.55, 751.65
1335009.33, 5018658.09, 751.54
1335009.7, 5018657.63, 751.52
1335010.07, 5018657.18, 751.5600000000001
1335010.44, 5018656.73, 751.5500000000001
1335009.34, 5018656.71, 751.25
1335008.97, 5018657.16, 751.3000000000001
1335008.6, 5018657.61, 751.3000000000001
1335008.24, 5018658.0600000005, 751.38
1335007.52, 5018657.97, 751.19
1335007.8800000001, 5018657.5200000005, 751.15
1335008.25, 5018657.08, 751.0
1335008.61, 5018656.63, 750.8000000000001
1335007.67, 5018656.600000001, 750.47
1335007.31, 5018657.05, 750.6
1335006.91, 5018656.62, 750.13
1335018.6300000001, 5018658.76, 755.46
1335018.28, 5018659.2, 755.62
1335017.69, 5018658.93, 755.46
1335014.75, 5018661.17, 754.02
1335015.56, 5018659.21, 754.74
1335014.59, 5018659.18, 753.85
1335010.55, 5018659.67, 753.33
1335010.6400000001, 5018658.58, 752.32
